ply
format ascii 1.0
comment Created by Open3D
element vertex 1287
property double x
property double y
property double z
property uchar red
property uchar green
property uchar blue
end_header
20.3008 -28.389 -0.90839 208 211 215
37.6773 -30.3091 0.786801 211 212 216
-39.4858 16.5343 1.39096 204 203 208
-41.7733 -23.665 -0.546929 203 202 206
-36.3942 -24.4274 0.55829 196 199 204
-29.581 -24.3668 -1.11991 201 205 209
-29.1851 -24.3339 -1.21069 201 205 209
-4.37576 -26.2624 -0.566445 133 133 133
-2.359 -26.7474 0.152891 38 38 38
28.3921 -28.6676 -0.641623 206 208 212
30.6202 -28.8543 -0.327902 212 214 218
37.85 -29.9361 0.939246 211 212 216
-29.1369 -24.0527 -0.808536 203 207 211
-28.0895 -24.0452 -1.29974 198 201 205
-10.6279 -24.9151 -2.47606 200 200 204
9.67005 -3.79733 -0.194923 201 202 206
-5.687 -25.7342 -1.00178 65 65 65
-4.3786 -25.8712 -0.531362 140 140 140
1.52172 -26.7853 0.499526 194 195 199
18.0671 -27.1805 -1.75909 208 210 215
21.9576 -27.9197 -0.238834 213 216 219
-41.8293 -22.8337 -0.713795 207 207 210
-37.5062 -23.4635 0.381937 209 211 215
-28.366 -23.8342 -0.785379 202 206 210
-10.7514 -24.4784 -2.61693 200 200 203
-4.38234 -25.4704 -0.525523 129 129 130
20.2573 -27.2061 -0.820311 207 210 214
23.8514 -27.6974 -0.314463 196 199 203
39.842 -29.1175 1.14705 211 212 216
-31.9085 43.537 2.47235 188 186 189
-41.802 -22.4386 -0.722809 207 206 210
-37.4585 -23.0914 0.384926 208 210 214
34.9063 -26.7662 1.74359 215 216 220
-27.5461 -23.4487 -0.922046 198 202 205
-14.2731 -23.4998 -3.44616 203 207 211
-5.69581 -24.972 -0.889171 38 38 38
16.4761 -26.0144 -2.13408 207 210 215
-30.369 -21.236 0.131569 205 209 213
17.9847 -26.2862 -1.66765 207 211 214
18.5653 -26.4031 -1.28483 207 210 214
29.6978 -27.7108 0.180296 211 214 217
31.8945 -27.8822 0.453811 214 215 219
41.3062 -28.7896 1.11885 193 194 197
50.0536 -28.4038 -2.35329 175 174 153
-42.3414 -22.0186 -0.770687 209 209 211
-14.0052 -23.1588 -3.32602 205 209 212
-5.7006 -24.5859 -0.846968 61 61 61
13.5114 -25.2966 -2.50048 202 205 209
15.3488 -25.5729 -2.34442 205 208 213
15.7853 -25.5995 -2.24748 205 208 213
22.0629 -26.7028 0.151957 215 217 221
41.2971 -28.4134 1.20548 190 191 194
-42.4406 -21.7039 -0.575553 205 204 206
-41.3917 -21.8144 -0.382695 210 211 215
15.9368 29.8031 -1.05038 175 173 177
13.4635 -24.8171 -2.71822 208 211 215
13.8666 -24.8318 -2.65285 208 211 215
14.2702 -24.8332 -2.62139 206 210 214
18.8619 -25.7387 -0.86922 208 211 215
19.793 -25.7951 -0.635565 207 211 214
25.6835 -26.5273 -0.0365694 210 213 217
29.3035 -27.0146 0.459041 210 212 216
36.8327 -27.7345 1.50893 213 212 217
38.8803 -27.7937 1.5392 194 194 199
43.4257 -27.9919 0.64831 193 193 196
13.0933 -2.78047 0.877515 194 196 200
-7.53684 -23.4197 -1.25778 180 180 180
-5.71067 -23.8163 -0.758562 78 78 78
11.6164 -24.3476 -2.68643 192 196 199
12.4209 -24.2955 -2.76863 210 214 217
13.3005 -24.3992 -2.81683 208 212 215
13.8731 -24.3504 -2.86211 208 212 215
18.2924 -25.3895 -0.804344 208 211 215
21.795 -25.9805 0.405929 214 217 221
31.5119 -26.818 0.846703 214 215 219
33.2097 -26.8945 1.22601 213 214 218
-1.85439 38.1149 -0.711163 193 193 196
37.3685 -27.3462 1.68269 209 210 214
-25.1561 -22.0706 -0.912061 205 209 212
-10.3528 -22.5465 -2.47242 165 164 167
-7.54246 -23.007 -1.29896 197 197 197
13.2928 -23.9875 -2.85089 209 213 216
27.5192 -26.0262 0.595192 206 208 212
44.246 -26.9815 0.556643 200 199 202
-30.3652 -21.6003 0.0852206 204 208 211
-12.1383 -21.8672 -3.04274 200 203 207
-10.3507 -22.1521 -2.47256 127 126 129
-8.97428 -22.4453 -1.89001 53 53 56
8.64086 -23.2352 -3.12873 181 184 187
10.1121 -23.3012 -2.77806 199 203 206
14.1672 -23.7767 -2.37169 212 215 219
26.9585 -25.5216 0.678999 206 209 213
-29.3916 -21.285 0.155894 207 210 214
-26.508 -21.3455 -0.541491 200 204 208
13.4595 -23.3955 -2.25621 210 214 217
34.84 -25.9583 1.76981 206 207 211
45.0711 -26.0482 0.351399 201 200 203
-30.7234 -20.8669 0.217654 203 207 210
-30.36 -20.8911 0.242018 206 209 213
7.8359 -22.3836 -2.94019 85 84 87
10.2283 -22.5524 -2.64681 210 212 216
29.554 -24.932 1.13967 194 195 199
34.8081 -25.3577 1.66404 199 200 205
45.4025 -25.6409 0.356846 203 202 205
-42.3101 -19.6494 -0.10057 208 208 213
-30.3574 -20.5305 0.300462 206 209 213
-8.55851 -21.2794 -1.80532 63 63 65
9.70091 -22.1853 -2.60532 203 203 207
41.3606 -24.9817 0.396042 197 198 201
-8.56478 -20.8684 -1.85632 74 74 76
13.7528 -17.0414 -0.665054 197 201 204
7.97783 -21.578 -2.58137 66 65 69
9.30144 -21.8308 -2.51994 106 105 110
11.1733 -21.8922 -2.18155 211 214 217
18.7644 -23.2786 0.56171 214 217 220
33.0627 -24.229 1.39414 198 199 203
41.8994 -24.5924 0.511409 203 204 207
47.9308 -24.7361 -0.407942 205 205 205
-9.9742 -20.189 -2.43534 194 193 197
30.6948 -9.99951 -0.039357 208 209 214
43.2792 -24.0681 0.327724 191 192 195
-30.8068 -19.3329 0.105104 204 208 212
25.3873 -15.1061 -0.82802 198 200 204
-22.2902 -19.7154 -0.44515 200 203 208
13.6635 -21.6508 -0.699703 212 215 219
22.9072 -22.6649 0.666927 190 192 196
24.799 -22.8913 0.690324 197 200 203
28.7264 -22.9525 0.844731 193 194 198
47.8572 -23.8157 -0.375183 185 186 186
22.0608 0.569807 1.01436 187 190 194
35.3184 43.0992 -2.67256 132 130 133
-8.29523 -19.6484 -1.98768 67 66 68
9.15143 -20.5892 -1.88808 90 89 94
13.6142 -21.2912 -0.599075 211 215 219
19.6202 -21.8544 0.393794 201 203 207
20.9995 -22.1527 0.594851 199 201 205
31.2829 -22.7948 1.00195 200 201 205
32.7889 -22.9486 1.16255 198 199 203
47.8258 -23.2707 -0.360177 195 195 194
-19.1695 -18.895 -0.878015 202 206 210
-9.98167 -19.0306 -2.39522 200 199 202
11.0179 -20.4904 -1.64763 212 215 218
12.653 -20.684 -0.904244 210 212 216
13.6121 -20.9119 -0.538118 207 211 215
-8.27109 48.4347 -3.68277 205 202 204
41.3731 -22.7189 0.0980226 190 191 194
43.3777 -22.7987 0.1271 191 192 195
9.14659 -19.8756 -1.66251 54 53 58
46.7202 5.16237 -0.221122 201 199 203
12.6496 -20.2802 -0.920268 201 204 207
14.1451 -20.5614 -0.356931 193 197 201
33.1109 -22.0871 1.0384 200 201 206
41.9016 -22.2968 0.115189 198 199 202
43.2979 -22.3666 0.0239783 205 207 210
10.0927 -19.5321 -1.41023 204 205 209
12.6167 -19.8988 -0.878532 193 196 200
27.3359 -21.073 0.323098 194 197 201
29.2191 -21.2326 0.534894 193 194 198
41.6701 -21.8357 -0.102966 193 194 197
45.6158 -21.9329 -0.224237 206 205 209
47.7401 -22.1056 -0.285825 204 205 203
25.6605 -20.3451 -0.0179492 193 196 199
32.7683 -21.0837 0.83669 202 203 207
39.2556 -21.1518 0.0325826 195 197 200
50.0815 -21.1641 -2.00326 172 172 148
-17.655 -17.6174 -0.611384 201 204 209
35.2626 -20.7008 0.731676 185 186 190
43.3797 -20.9021 -0.333547 202 204 207
45.3973 -20.9862 -0.276955 208 208 211
50.0782 -20.8298 -1.84748 167 166 144
35.2637 24.7784 2.10987 198 197 201
-43.9834 -16.0684 0.328528 208 208 207
-17.6766 -17.2872 -0.417926 201 204 209
6.57008 -17.9234 -2.27365 40 40 42
12.4444 -18.7047 -0.944116 191 194 198
19.7814 -19.1398 -0.597358 193 195 199
25.9752 -19.4742 -0.2135 200 203 207
31.0248 -19.949 0.470554 200 201 205
50.0542 -20.2989 -1.821 169 167 145
50.3302 -20.2952 -2.22085 165 164 145
-19.349 -16.892 0.285201 201 203 209
-16.241 -16.8043 -1.00426 197 200 205
12.4369 -18.1765 -0.944363 196 199 203
20.1523 -18.7014 -0.690705 192 194 199
25.7963 -19.0796 -0.256297 201 204 207
27.8224 -19.2022 -0.0901385 200 202 206
31.0121 -19.5593 0.501386 200 201 205
39.5532 -19.9452 0.0204455 198 200 202
-0.874056 -16.8526 -2.22809 44 43 46
0.346848 -16.9264 -2.31814 51 50 52
0.845553 -16.9471 -2.14712 45 45 47
2.10809 -17.0256 -1.73156 48 47 49
-9.11054 59.1367 -3.33337 193 191 188
9.09311 -17.5781 -1.48331 156 155 160
13.777 -18.072 -0.746833 198 202 206
19.99 -18.2905 -0.785797 193 195 200
45.3912 29.5667 0.5554 202 200 201
27.7594 -18.8054 -0.113092 200 202 206
29.4553 -19.0066 0.296599 204 205 209
42.738 -19.4528 -0.359911 201 203 205
-30.9211 58.3787 2.7139 195 194 192
35.2008 8.64621 0.378367 146 147 151
45.2683 -19.6397 -0.322267 208 207 211
-14.4866 -16.0829 -1.06048 198 201 206
-6.20743 -16.0719 -2.54189 49 49 49
-1.51167 -16.4726 -2.10807 40 39 42
9.08707 -17.1906 -1.46921 117 116 121
10.9335 -17.1755 -1.343 200 203 206
13.766 -17.5454 -0.734771 197 201 204
20.3489 -17.8498 -0.902511 193 196 200
24.2338 -18.081 -0.620924 191 193 197
46.9581 -7.32055 0.984493 205 204 206
44.3184 -19.1736 -0.259752 200 200 204
45.9548 -19.1833 -0.0304279 205 206 208
-15.0189 -15.7024 -0.851893 197 200 205
-6.23026 -15.6942 -2.52159 47 47 49
-1.5314 -16.1007 -2.06949 31 30 33
-0.833842 -16.1062 -1.98793 69 68 71
-2.70681 10.7533 1.84431 184 185 189
7.22706 -16.4759 -1.83063 39 39 41
16.4459 11.67 4.0535 192 192 197
12.2418 -16.9816 -1.0219 203 207 210
20.3186 -17.4444 -0.945129 194 196 201
27.5683 -17.9996 -0.201887 196 198 202
29.2226 -18.0545 0.167787 204 205 209
15.9392 9.86653 3.51792 190 191 196
30.8955 -18.3492 0.430297 207 208 212
43.2223 -18.6827 -0.235912 203 204 207
-4.91377 -15.4932 -2.21457 59 58 60
-4.02495 -15.5228 -2.026 65 65 68
0.288781 -15.9619 -1.49497 54 53 57
1.06351 -16.0089 -1.28141 39 39 40
29.2044 -17.6465 0.130446 194 195 199
41.5769 -18.0617 -0.287871 199 201 204
45.2178 -18.3998 -0.103378 201 200 203
-20.9662 -15.3115 1.35058 198 201 206
-19.6717 -15.0736 0.691849 199 202 207
-6.24987 -15.0053 -2.24489 43 43 44
-5.83169 -15.1152 -2.2693 38 38 39
-5.43779 -15.0966 -2.29826 51 51 52
0.276834 -15.5257 -1.22045 66 65 69
13.7275 -16.2915 -0.554954 202 206 209
20.2736 -16.6687 -0.922325 194 196 201
25.8845 -16.9711 -0.699567 200 202 206
27.5223 -17.0487 -0.262853 191 193 197
33.1035 -17.462 0.357471 197 197 202
39.2338 -17.6921 -0.0359257 196 197 200
41.5536 -17.6784 -0.258363 199 201 204
-6.23976 -14.6227 -2.23409 49 49 51
40.6988 -4.67703 1.50553 202 203 206
-4.0432 -14.8107 -1.82637 45 44 48
13.72 -15.9151 -0.50415 203 206 210
21.3405 -16.2878 -0.768756 196 198 202
34.217 -23.3605 1.33081 204 205 209
25.8378 -16.4246 -0.776491 197 200 203
35.23 -17.0187 -0.0331155 193 194 199
41.5104 -17.2885 -0.258117 200 201 204
27.849 58.7107 -1.49019 194 193 190
21.4519 20.7759 3.23933 125 125 130
44.6155 -17.4955 -0.10068 202 201 205
40.5767 -0.138561 1.53748 195 196 200
47.1169 -17.6928 0.388113 204 204 204
-42.8762 -13.3881 0.558482 204 205 207
-13.0093 -14.1501 -1.34036 195 198 203
16.4193 -15.7177 -0.604125 198 198 203
20.6229 -15.7173 -1.01619 199 201 206
27.4571 -16.2168 -0.410456 191 192 196
39.5423 -16.8519 -0.171544 193 195 197
41.4761 -16.8852 -0.291712 199 200 203
37.1217 40.8201 -1.76796 203 201 204
-39.4455 -13.0428 0.707944 199 200 204
-8.03758 -13.8351 -1.94854 89 88 90
-4.43331 -14.1282 -1.54507 31 31 34
-2.62354 -14.3301 -1.10865 101 100 103
41.4525 -16.3511 -0.277738 197 199 201
44.554 -16.5909 -0.0710346 201 200 204
12.3213 -14.5741 -0.764275 199 201 204
13.657 -14.7596 -0.458007 195 199 203
20.4477 -14.763 -1.17573 199 201 206
24.2941 -15.1365 -0.868736 196 198 202
35.5197 -15.7797 -0.200078 198 199 203
45.0728 -16.0235 -0.0722176 202 201 205
-40.1672 -12.3696 1.00261 207 207 212
-6.26989 -13.1737 -1.39643 35 35 36
-4.19057 -13.4902 -1.01562 127 126 129
45.026 -15.6414 -0.056044 203 202 205
-46.469 -11.7195 0.38076 142 141 126
-42.7522 -12.0886 1.13732 204 204 206
-34.4542 -12.339 1.17681 197 199 203
-1.19188 -13.2584 -0.634058 46 45 47
27.2306 -14.3553 -1.05527 196 198 202
39.4116 -15.0358 -0.108788 202 203 206
45.0039 -15.2617 -0.0246402 204 202 207
46.5787 -15.4052 0.146538 203 203 204
-42.6613 -11.7427 1.29957 202 202 204
27.2451 -13.9482 -1.09826 198 200 204
46.4103 -14.8479 0.0453975 205 205 207
-42.6431 -11.3682 1.33605 202 201 203
-31.9656 -11.9291 2.03495 204 208 211
-31.176 -11.9586 2.09906 206 209 213
-6.98078 -12.224 -0.679451 39 39 41
-0.801226 -12.4756 -0.629879 79 78 80
12.6878 -12.9178 -0.623208 202 206 209
20.0286 -13.276 -0.985373 200 202 207
20.694 -13.2784 -0.985019 201 203 208
29.8505 -13.701 -0.443144 199 200 204
38.678 -14.1185 -0.183011 207 208 211
40.286 -14.2447 -0.0400151 207 208 211
-37.2758 -11.16 1.42165 206 205 210
13.475 -12.6892 -0.453196 200 204 207
29.7066 -13.2455 -0.657411 200 200 205
32.9897 -13.4803 -0.281669 193 194 198
38.6559 -13.7474 -0.13204 209 210 213
42.2148 -13.7935 -0.0077848 206 208 211
44.7642 -13.9937 0.0653687 209 208 212
47.6168 -14.1488 0.472115 212 212 211
44.2679 -9.26126 0.753576 209 210 213
23.6307 -12.5752 -0.831226 196 198 202
26.0278 -12.7841 -0.755383 200 202 206
28.6323 -12.8409 -0.7726 199 200 204
29.7338 -12.8592 -0.560607 198 199 204
35.1577 -13.1604 -0.302314 208 209 212
36.9902 -13.0844 -0.353473 201 203 206
44.7193 -13.6367 0.145463 209 208 212
46.3212 -13.7218 0.161187 208 208 210
35.0302 55.6803 -0.85581 188 188 188
-27.0639 -11.157 2.92103 200 204 207
-9.97802 -11.1097 -0.292329 91 91 94
-5.94734 -11.2422 0.105571 48 48 50
12.632 -11.7531 -0.65402 202 206 209
29.3354 -12.5 -0.502074 202 203 207
32.7844 -12.6299 -0.135832 203 204 208
35.1683 -12.6632 -0.182117 205 206 209
38.6264 -12.8684 -0.0327039 204 206 208
42.9337 -13.1379 0.500024 208 210 213
48.2548 -13.3875 0.619063 208 208 206
-25.8889 -10.8513 2.7321 199 203 206
7.33378 -10.9804 -1.71942 36 36 39
26.0017 -11.7701 -0.65491 200 202 206
29.894 -12.1453 -0.289024 204 205 209
40.8791 -12.5828 0.169042 208 209 212
44.5031 -12.679 0.478036 211 210 214
48.2538 -13.0214 0.697281 206 206 204
-46.4166 -9.21344 0.767119 143 140 127
-18.547 -10.5865 2.15015 199 202 207
40.8705 -12.1125 0.333541 209 209 213
44.1365 -12.3415 0.631696 211 211 215
-44.3616 -8.99999 0.69954 203 204 200
-18.5699 -10.216 2.19233 198 201 206
43.6114 29.1798 1.01201 199 196 199
30.7455 -11.3899 -0.171841 209 210 215
44.1218 -11.9977 0.772121 212 212 215
10.3072 -9.98542 -1.32812 200 201 204
12.415 -10.1909 -0.789637 200 201 206
29.6527 -10.8425 -0.377032 210 211 215
31.2539 -10.8868 -0.017177 210 211 215
41.445 -33.4385 -0.391824 201 202 206
47.5228 -11.6704 0.898945 213 213 214
-36.1729 -8.86067 2.32101 202 201 206
7.30755 -9.36122 -1.57389 68 67 69
10.3115 -9.62064 -1.2547 203 204 207
13.206 -9.80333 -0.717117 200 201 205
14.6742 -9.79115 -0.580997 200 202 206
16.5082 -9.92222 -0.39037 203 205 209
28.0158 8.64046 0.866199 156 157 162
25.571 -10.3204 -0.365981 209 212 215
34.3745 -10.6576 0.454994 209 210 213
42.0949 -11.0535 0.879563 212 214 216
44.0795 -11.1322 0.948954 212 213 216
-31.7984 -8.60377 1.97861 199 203 207
-24.7629 -9.00196 2.90932 199 203 207
12.1393 -9.39773 -0.938649 188 189 193
15.8312 -9.47209 -0.73889 202 205 208
-17.3082 -56.2839 -1.89951 202 201 206
41.9238 -10.5402 0.899463 212 214 216
47.47 -10.7798 0.993646 213 213 213
-42.9997 -7.82557 1.40931 202 202 202
6.90603 -8.65239 -1.41127 103 103 104
17.2794 -9.17322 -0.232213 203 206 209
31.9259 -9.80579 0.37092 205 206 210
34.5129 -9.96308 0.783401 208 209 213
37.2661 -10.126 1.24621 210 211 214
38.2804 -10.1167 1.32366 211 213 216
38.8918 -10.1969 1.26415 211 212 215
44.0024 -10.2333 0.944484 211 213 216
-43.0439 -7.41361 1.34697 202 202 203
-29.3493 -7.92596 2.30122 198 202 206
-10.0771 -8.23909 1.12035 177 178 181
6.89625 -8.2887 -1.34341 117 116 118
30.7924 -9.27306 0.151962 205 206 210
33.5466 -9.44513 0.69948 206 208 211
-46.6938 -6.91558 1.02432 164 162 151
-11.8768 -7.92233 1.26224 199 203 207
-11.4965 -7.92093 1.29406 195 199 202
4.04492 -7.80572 -0.999022 30 30 31
29.2523 27.9432 0.486239 196 194 199
8.70228 -8.06363 -1.03056 50 49 52
30.7818 -8.77701 0.251842 205 206 211
31.8035 -8.9938 0.330148 209 210 214
36.2712 -9.29897 1.42887 212 213 216
41.8348 -9.37509 0.858527 214 215 218
43.7597 -9.27287 0.72718 210 211 214
46.4028 -9.36471 0.891545 206 206 208
19.7503 44.2799 -4.47023 187 186 190
48.0373 -9.6264 1.08065 204 204 203
-46.694 -6.5818 1.10723 164 161 150
-41.3161 -6.84647 2.07683 202 203 207
-38.0017 -6.99321 2.09589 199 197 203
8.68834 -7.56165 -1.00068 51 50 53
13.5515 -7.92943 -0.526019 197 198 202
17.7667 -8.04781 -0.0664943 201 203 207
30.7601 -8.41162 0.316986 205 206 211
32.3906 -8.54848 0.537627 208 209 213
43.914 -8.91051 0.857572 206 207 210
47.3076 -8.97647 0.9969 204 204 204
47.9906 -8.98527 1.13213 203 203 203
-46.6888 -6.23933 1.14583 163 161 149
-41.5034 -6.61123 2.34598 200 199 203
-39.2569 -6.58038 1.87709 198 198 202
13.5459 -7.56072 -0.47246 197 198 202
19.2385 -7.69309 0.247701 204 207 210
-41.2887 -5.53762 2.09385 203 202 206
33.9123 -8.2333 1.02154 210 211 214
37.8643 -8.5077 1.60138 210 212 215
-42.9174 -5.94482 1.43275 204 204 204
-40.6952 -6.30917 2.24965 198 197 202
-43.3526 24.9087 0.210741 201 200 202
-39.9947 -6.281 2.17006 197 197 201
-39.5042 -6.26533 2.08802 197 197 201
-38.0019 -6.18105 1.87833 198 197 202
-30.8135 -6.5079 2.46135 199 202 206
-21.1138 -6.96969 3.21752 191 194 198
-37.1332 20.2207 1.77086 199 198 203
17.2178 -7.17857 -0.0227129 200 202 206
23.108 -7.42141 0.0562258 206 209 213
29.682 -7.81662 0.897408 207 207 212
30.3751 -7.73249 0.674253 211 210 215
-43.0384 -5.60166 1.29956 209 208 210
-40.6369 -5.94025 2.33528 198 197 202
-39.776 -5.89782 2.22513 195 194 199
-29.3503 -6.06719 2.00159 200 203 207
-27.5795 -6.25079 2.26366 199 203 206
-4.95059 -6.6929 2.25586 199 198 203
6.46013 -6.34107 -1.07146 86 86 89
34.2167 -7.55136 1.43877 210 211 215
35.8373 -7.53789 1.61467 213 214 217
14.8148 20.845 2.99453 150 149 154
-43.0011 -5.31132 1.43576 205 204 206
-41.8047 -5.56957 2.22201 204 203 207
-40.8587 -5.50519 1.98043 201 200 205
-30.8619 -5.81889 2.62242 197 200 204
-25.738 -5.86891 2.07964 202 206 210
-24.9377 -5.95963 2.72582 194 198 202
10.0999 -6.25024 -0.488572 107 108 111
13.7834 -6.22826 -0.118655 149 151 155
14.1193 -12.0663 -0.300672 201 205 208
30.1454 -7.01157 1.22883 212 211 216
-42.9724 -4.93702 1.39843 204 204 205
-28.6225 -5.4027 2.03131 199 203 206
11.7841 -5.113 -0.285541 203 204 207
-24.6339 -5.53788 2.52645 194 198 201
-19.3411 -5.67502 2.4592 186 190 194
-2.15016 -6.06988 2.38661 197 198 202
10.0906 -5.75583 -0.422078 153 154 157
14.9565 -5.98127 0.0237556 189 191 195
23.0747 -6.17665 0.184534 207 209 213
33.6368 -6.68753 1.53824 209 210 214
39.7999 -6.96108 1.86526 206 208 210
43.2331 -7.0147 1.9589 205 206 209
47.1148 -6.95844 1.1108 204 204 206
-24.9786 -5.13144 2.37478 192 195 199
10.1116 -5.37434 -0.423828 200 201 204
29.093 -6.22435 1.76922 208 208 213
33.6426 -6.32413 1.63373 209 210 214
37.7303 -6.32274 1.62301 204 205 208
44.7609 -6.56121 1.90341 203 202 205
-24.3458 -4.78082 2.16518 193 197 201
-6.17766 -29.1414 -1.28426 62 62 62
-2.79131 -5.37491 2.94433 197 197 202
13.7539 -5.1196 0.0168783 203 206 210
15.5878 -5.12274 0.269729 206 208 212
33.9347 -5.96542 1.81016 212 213 217
37.0381 -5.98706 1.70374 204 205 208
48.7256 -6.20901 1.41197 203 202 202
-41.9599 -4.01059 1.59572 204 205 208
-39.198 -4.05615 1.82193 201 202 206
-5.05502 -4.94142 2.40955 201 203 208
7.86862 -4.54462 -0.466194 187 187 190
29.062 -5.37136 1.98661 206 207 212
29.5821 -5.36509 2.03821 208 208 213
33.2362 -5.35115 1.86299 206 207 212
44.75 -5.7519 2.30196 200 201 203
-36.2202 -3.67291 1.0088 196 198 201
-26.1776 -3.95301 1.91973 196 199 203
-24.5793 -4.09783 2.35078 193 197 201
-4.65074 -4.59265 2.63012 203 205 209
-3.21183 -4.64335 3.07323 198 200 204
14.8207 -4.48392 0.733689 204 207 210
29.1875 -5.00768 2.11314 207 207 212
36.6289 -5.10279 1.75938 202 203 206
37.5191 -5.067 1.70651 202 203 206
41.4333 -5.0321 1.51881 201 203 206
-27.1484 -3.61296 1.79525 199 202 206
-20.361 -3.92097 2.8924 201 204 208
-4.39279 -4.23948 2.84032 200 204 208
-3.19513 -4.27289 3.15162 196 198 202
14.9509 -4.13033 0.89373 204 207 210
26.0817 -4.3704 1.7225 207 208 213
26.7673 -4.47788 2.05168 209 210 214
33.1931 -4.60982 1.95763 209 210 214
40.1727 -4.7267 1.6199 202 203 206
48.2746 -4.85683 1.61329 206 205 207
-32.7103 59.8037 1.25672 191 190 183
-41.5133 -2.93802 1.57429 200 199 203
35.1547 -4.15529 1.929 198 199 202
37.4492 -4.2992 1.67378 201 202 205
41.1884 -4.26051 1.41404 201 202 205
44.4487 -4.30466 2.10449 200 201 203
-41.8581 -2.63587 1.82535 203 205 209
9.658 -3.07916 -0.0245069 199 200 204
10.57 -3.09425 0.177726 200 202 206
16.4112 -3.44012 1.43952 205 207 211
27.8208 -3.66445 2.25266 190 191 195
-2.84819 14.5564 0.665652 191 191 196
37.4134 -3.7894 1.65953 196 197 200
41.1785 -3.88242 1.42681 201 202 205
46.557 -4.08879 2.00416 205 205 208
-33.685 -2.2988 0.991795 196 197 201
-34.5014 22.2688 2.45146 194 193 198
-22.1148 -2.57103 2.55856 187 191 194
0.399012 9.71161 3.41674 149 151 155
11.0908 -2.73276 0.331147 200 202 206
32.9478 -3.29404 1.75345 194 195 199
41.1122 -3.37911 1.47308 200 201 204
46.3344 -3.4688 2.04882 205 205 207
-41.7033 -1.87055 1.60797 200 200 204
-32.8748 -1.98518 1.29789 194 198 201
-17.7844 -2.47035 3.2653 122 126 129
-6.62707 -2.487 2.71705 72 76 79
-4.81065 -2.51184 3.11002 201 205 209
9.6492 -2.36418 0.162914 210 210 215
11.0875 -2.37537 0.429683 174 177 180
19.2126 -2.6857 1.89524 120 122 126
23.2408 -2.83003 1.87764 191 194 198
41.0952 -3.00477 1.49152 197 198 201
44.862 -3.14118 2.06389 201 203 204
-3.63593 -2.29642 3.47146 116 119 123
19.5824 -2.27802 1.81221 182 184 189
31.4224 -2.4351 1.64745 197 198 202
37.0331 -2.50855 1.56151 189 191 193
41.0543 -2.51102 1.53528 195 196 199
44.6996 -2.75182 1.98359 198 200 201
-32.0322 -1.42924 2.8067 193 196 199
-22.9028 -1.46616 2.14388 193 197 201
25.7979 -1.94922 1.63376 184 185 189
39.4298 -2.02366 1.40268 190 192 195
44.5888 5.33916 -0.130315 196 197 198
-38.8859 -0.919411 2.716 198 198 202
-34.3394 -1.13821 2.9247 198 199 203
-32.9179 -1.11077 2.97323 195 200 203
8.84899 -1.17911 0.414909 132 134 138
29.7752 -1.5366 1.36462 193 194 198
-45.8826 -48.5192 -1.9179 253 253 253
33.859 58.5524 -0.969399 198 199 195
39.3761 -1.64267 1.37285 190 191 194
48.2071 -1.77155 1.42275 191 190 191
-32.9346 -0.753765 3.07371 196 200 203
-31.4098 -0.720245 3.05072 195 199 202
-16.1263 -1.11953 3.77736 196 200 204
-2.07504 -1.36173 4.18678 198 201 205
8.84442 -0.823581 0.521735 142 146 150
46.2983 -1.35823 1.63009 198 197 199
15.6782 -14.9747 -0.415741 199 203 207
-3.39621 -0.828296 3.88048 198 201 205
24.0914 -0.664724 1.21411 120 120 125
25.9124 -0.616701 1.23771 185 186 190
29.5377 -0.747948 1.11604 195 196 200
31.5127 -0.719256 1.29095 193 194 198
39.3439 -0.903625 1.43563 189 191 193
40.7837 -0.887918 1.57405 191 192 195
-6.7091 -0.398011 3.82537 195 199 203
23.9151 -0.273811 1.08987 189 190 195
33.3112 -0.292977 1.30458 195 196 200
35.2575 -0.36951 1.30599 189 190 194
44.6149 -0.511784 1.48224 195 196 198
46.5281 -0.426367 1.36127 199 197 199
-2.62007 -0.11919 4.31204 200 204 208
12.2448 0.0989186 1.48353 189 192 196
22.0872 0.193635 1.0396 187 190 194
28.0461 0.239883 1.00984 196 197 201
37.3541 0.121364 1.00733 190 191 194
38.9967 -0.00997913 1.33141 194 195 198
42.6593 -0.0741935 1.54948 192 194 197
-43.0634 0.858907 2.42321 200 199 203
-41.4353 0.735427 2.8624 204 204 208
-40.3489 0.697009 3.12049 202 201 206
10.7836 0.625886 1.12294 200 204 207
33.6089 0.500651 1.10704 192 193 197
37.3152 0.499712 0.974039 193 194 197
41.0547 0.413493 1.41809 197 199 201
46.2409 0.508646 1.04393 194 193 195
46.7519 0.390318 1.01949 193 191 194
-39.9581 1.07326 3.15411 201 200 205
-38.7897 1.14863 2.88677 201 201 205
-38.0826 1.08957 2.49169 200 199 204
-12.8758 0.759407 4.42091 183 187 190
-2.49586 0.619013 4.40995 212 215 220
-0.371341 0.621031 4.54041 188 191 196
12.2183 0.992089 1.41177 188 191 196
22.0314 0.925561 1.10284 187 190 194
28.1892 1.02337 0.794704 196 197 201
33.1933 0.868377 1.0794 193 194 198
35.8676 0.981163 0.899812 188 189 193
36.7463 0.873851 0.863388 196 197 200
-42.1414 1.39017 3.06854 201 200 203
26.6944 59.0857 -1.14374 168 167 164
-4.19378 0.980334 4.47355 201 204 208
8.17723 1.46257 0.938276 185 189 193
37.089 1.40443 0.794797 199 201 203
39.2088 1.28894 1.05116 197 199 202
42.7084 1.27385 1.06118 194 196 198
-40.2744 1.81347 3.13136 199 198 203
-39.9187 1.80686 3.23265 200 199 204
-36.4838 19.2038 1.93123 198 197 202
-38.4386 1.74689 3.00831 201 200 205
-7.42436 1.26621 4.99208 201 205 209
-2.08698 1.37821 4.56384 187 191 195
9.26548 1.91882 0.942009 206 210 213
16.7611 1.85243 0.672167 186 188 193
39.0206 1.67273 0.934443 194 196 199
44.8792 1.61666 0.798696 191 193 194
46.2837 1.6624 0.782559 195 194 196
-28.821 1.94284 3.73471 202 206 209
-0.810025 1.78017 4.55717 180 183 187
14.7184 2.17183 0.660127 187 190 195
33.6682 2.31759 0.702022 182 183 187
42.2963 2.15875 0.839006 191 193 195
44.6451 2.28433 0.534354 189 190 191
-8.07905 2.03255 4.94105 192 195 199
15.5706 2.60592 0.399433 189 191 196
16.7215 2.62287 0.481775 185 187 192
18.9181 2.67392 0.541257 186 188 193
22.5192 2.65975 0.456017 190 192 197
26.3058 2.62065 0.622776 197 198 202
37.3287 2.55866 0.575258 194 195 198
40.6946 2.64507 0.676029 186 187 190
42.5748 2.57989 0.582711 186 188 190
-46.719 2.83528 2.21599 156 154 138
47.4566 -24.7755 -0.32667 204 204 204
-11.4356 2.57433 4.34859 188 191 195
22.5121 3.02308 0.496999 192 194 199
29.7015 3.02017 1.06801 192 193 197
-46.7121 3.17278 2.25992 157 154 139
-37.1612 3.07262 3.33198 206 205 210
-24.7639 3.06578 3.84336 188 192 196
-23.3615 3.11627 3.72439 191 195 198
3.98067 2.97528 3.57354 184 187 192
24.2877 3.43052 0.572807 198 198 203
33.7437 3.48385 0.330237 181 182 186
35.6604 3.56431 0.202107 192 194 197
46.7505 3.4962 0.258026 186 183 187
36.0604 -23.2956 1.24611 187 188 192
-46.6257 3.67436 2.20356 158 156 139
-37.9453 3.45138 3.31077 204 205 210
-10.4273 3.36951 3.94864 189 193 196
2.89438 3.4522 3.83842 189 192 197
18.4818 3.77813 0.50396 190 192 197
20.3014 3.79987 0.69586 186 188 193
-43.0014 3.87379 2.6222 205 204 208
-38.1155 3.86966 3.10408 197 197 202
-37.8387 3.79993 3.44053 194 195 199
-37.5588 3.76356 3.30077 195 196 201
-26.4356 3.82256 3.57735 189 193 196
-25.4433 3.85092 3.50792 188 192 196
48.6759 4.36073 -0.237697 200 200 199
-46.6781 4.30618 2.34369 157 155 139
-43.2363 4.31564 2.35203 200 199 203
-38.7134 4.26976 2.6111 193 192 197
-37.8475 4.15813 2.96439 197 197 202
-37.5107 4.1648 3.05245 197 197 201
-13.6528 4.21424 2.98065 186 190 193
18.481 4.60222 0.764835 200 202 207
33.9839 4.64395 -0.0135966 198 199 203
35.7587 4.6948 -0.0133156 186 188 191
37.6884 4.73166 0.119268 183 185 188
39.0911 4.76694 0.156847 186 188 191
42.8583 4.79385 -0.150184 185 186 188
48.6364 4.72448 -0.25055 205 205 204
-46.543 4.64473 2.39422 153 150 135
-42.9092 4.65239 2.62707 196 195 200
-42.3166 4.56877 2.71243 197 197 201
20.2725 4.89195 0.787829 203 205 210
-25.3988 60.6669 2.68764 185 184 178
24.6074 5.04794 0.551313 188 188 193
37.6383 5.11062 0.0162998 184 185 188
39.0526 5.1427 0.07666 185 186 189
40.9404 5.21596 -0.0352415 184 185 187
47.6439 5.22209 -0.177657 204 202 203
-42.2369 4.89629 2.96676 197 196 201
-41.9513 4.7938 2.87331 196 195 199
-33.2162 4.9461 2.96195 193 193 198
11.347 5.20816 2.17678 196 197 202
37.6122 5.47365 0.0180848 186 187 190
41.2595 5.61262 -0.190246 183 185 187
48.5655 5.58491 -0.257754 209 209 207
-41.6003 5.1461 2.8856 195 194 199
45.5334 13.6837 0.935688 200 200 202
-41.9346 5.12933 2.97611 196 196 200
-25.5179 5.24951 3.22737 186 189 193
-15.018 5.36244 2.4394 172 176 179
-3.60503 5.15406 4.37217 199 202 207
-13.2897 4.14674 3.08308 187 191 195
18.4451 5.81039 0.93572 199 201 206
-39.7204 45.6891 -3.87 191 189 186
43.582 6.05651 -0.279362 205 206 208
-43.24 5.68227 2.15595 198 197 201
-42.2325 5.47252 2.96913 198 197 202
-37.8824 5.63932 2.64487 194 193 198
-37.4562 5.58435 2.81182 194 195 199
-0.192347 5.58065 4.67941 200 203 208
24.3891 6.15573 0.425459 188 189 194
0.23714 10.3448 3.14055 165 167 171
28.1183 6.23074 0.649973 186 187 191
34.2491 6.36451 -0.0169396 196 197 200
-43.5289 6.0658 2.16025 199 198 201
-5.02522 6.09108 3.59361 172 175 180
26.1579 6.56839 0.43762 189 190 195
27.4205 6.59594 0.487187 187 188 193
28.1263 6.61025 0.579566 188 189 193
28.8147 6.62861 0.518911 186 187 192
37.3513 6.83807 -0.180347 209 210 213
44.7217 6.831 -0.434271 206 207 210
-42.5287 35.3179 -1.30551 200 201 197
-42.1174 6.28436 2.4468 197 196 201
-41.6063 6.31719 2.18208 196 195 201
-1.76705 6.29101 4.69085 198 202 206
15.0633 60.1198 -1.52959 149 145 133
-0.211756 6.3127 4.82895 201 204 208
2.03578 6.34857 5.03113 202 205 209
29.8557 7.01202 0.627666 202 203 208
44.7088 7.19547 -0.46359 206 208 210
-42.8695 6.63828 2.31314 198 197 202
-6.56862 6.89145 2.75867 171 175 178
21.966 7.37826 0.901669 199 200 205
22.332 7.39531 0.837633 199 200 205
24.1305 7.45396 0.776475 202 203 208
24.5107 7.47081 0.730788 203 203 208
28.4028 7.36775 0.383453 205 206 211
28.7834 7.37502 0.404055 204 205 210
35.5763 7.60283 0.121302 205 207 210
14.8785 -27.9886 -1.26183 177 180 184
-43.1833 6.99833 2.24959 199 199 203
-42.8342 7.00078 2.33679 198 198 202
-39.9733 6.97472 2.15234 196 195 200
4.50816 7.15898 5.07837 117 120 124
4.90078 7.17697 5.01584 118 122 126
5.30644 7.20458 4.8805 162 165 169
12.7475 7.53319 2.68224 194 196 201
24.4808 7.82629 0.780698 201 202 207
35.5703 7.95548 0.193103 203 204 207
46.2031 8.00567 0.208077 212 210 212
2.79367 7.46958 5.24168 131 134 138
24.1201 8.1544 1.00318 155 156 161
24.4945 8.17784 0.89855 197 197 202
25.3513 8.21072 0.804665 151 151 156
27.4847 8.28642 0.662762 164 164 169
-7.9753 41.3184 -2.83919 166 165 165
37.2839 8.38326 0.0482782 165 166 169
-47.3257 9.29472 2.34427 222 221 212
-41.6303 7.66284 2.13412 197 196 201
-39.6886 7.66019 2.09843 199 199 203
31.536 8.76152 0.662774 171 172 176
-43.1057 7.97834 2.23929 200 199 203
0.659684 8.28272 4.15334 190 192 196
23.5139 8.92396 1.61366 168 169 174
27.6567 8.97133 1.07073 167 167 172
36.9166 9.06396 0.293693 165 166 169
46.5152 9.42546 -0.463477 211 211 213
-0.389254 8.81167 3.56089 155 157 161
1.96796 8.64329 4.56768 190 192 196
34.8397 9.55637 0.858779 187 188 192
45.4523 9.73484 -0.181171 210 210 212
46.0391 9.77861 -0.547451 210 210 212
-40.5608 8.84305 2.04754 201 200 205
31.1234 21.8568 2.93786 195 194 199
-32.0737 8.83445 2.37949 169 168 173
-8.66759 9.17753 1.48913 187 187 192
-0.00686608 9.1994 3.48556 194 196 200
3.01824 9.00307 4.96505 194 196 200
20.6317 9.60732 2.46497 201 201 207
24.9224 9.66453 1.86301 200 200 205
29.2088 9.71081 1.34778 204 205 210
32.7226 9.82358 1.17819 205 206 210
-41.6111 8.98865 2.17648 198 197 202
-40.2413 9.01693 2.23637 196 195 200
-1.16068 9.60866 2.77851 196 198 202
3.79813 9.37323 5.20036 184 186 191
13.9021 9.78461 3.79384 199 201 206
20.4148 9.94178 2.74232 202 203 208
27.0563 10.0924 1.79779 205 205 210
46.0098 10.6084 -0.369166 210 210 212
-6.6459 9.93693 1.70721 168 167 172
0.26056 9.96378 3.30424 159 162 165
3.2274 9.89206 4.80087 167 169 173
22.222 10.342 2.8862 205 205 210
28.8511 10.4903 1.94087 204 204 209
-39.2101 9.75446 2.31883 199 198 203
2.57189 10.3003 4.23297 133 135 139
4.79478 10.1567 5.27603 161 164 168
15.3054 10.3567 3.97406 160 161 166
43.4594 -33.227 -0.391153 214 213 217
19.7968 10.7221 3.37229 125 125 131
20.288 10.7392 3.32182 182 183 188
30.753 10.9063 1.9406 204 205 210
34.2682 11.0268 1.69803 160 161 166
36.3623 11.1163 1.37964 159 160 163
38.074 11.1936 1.08969 205 206 209
42.0593 11.2924 -0.109368 204 206 209
47.6828 11.2817 0.346277 209 207 210
-43.0516 10.0146 2.38508 199 199 202
-0.801181 10.7347 2.57405 194 196 200
0.234849 10.716 3.08777 195 198 202
1.65804 10.6929 3.75613 169 172 175
3.23194 10.6646 4.50805 132 134 138
6.01513 10.5288 5.4103 157 159 163
8.10506 10.5876 5.37831 188 190 194
10.19 10.6714 5.07607 154 156 160
47.6732 11.7475 0.42455 208 207 209
17.6979 22.1043 2.98567 189 189 194
-6.6477 11.0296 1.64006 192 191 196
-0.0277959 11.0948 2.85057 194 197 201
17.7405 11.3589 3.83189 140 141 146
18.5057 11.3913 3.70613 130 130 136
19.0228 11.4099 3.64474 176 176 182
22.0922 11.5117 3.43234 196 196 201
25.7694 11.6407 3.09314 128 129 134
27.1618 11.7029 2.85087 140 141 146
29.6643 11.7362 2.42004 146 147 152
32.1516 11.6475 2.15766 188 189 194
37.8609 11.8642 1.51415 202 203 206
-40.8243 10.8352 1.6783 200 199 204
-0.0388537 11.4622 2.82008 192 194 198
4.39486 11.4131 4.74277 194 196 200
5.86038 11.5417 5.18214 189 191 195
25.3649 11.9922 3.12045 196 196 201
25.7591 12.0054 3.10537 200 201 206
26.122 12.0212 3.02586 196 197 202
33.8793 12.2071 1.96122 179 180 184
37.8333 12.2283 1.4608 207 208 211
43.5438 12.4852 0.325253 211 211 214
45.2919 12.4964 0.714483 210 211 213
6.10776 46.065 -1.19897 186 181 187
-2.47054 11.8668 1.61269 189 190 194
33.7457 43.0366 -3.03007 146 145 147
23.5661 12.295 3.27432 194 195 200
27.8692 12.4527 2.79522 195 196 201
32.1102 12.6174 2.22081 196 197 202
47.252 12.9214 0.572818 210 208 211
48.4426 12.9752 0.342085 214 214 212
-0.564746 12.2137 2.37921 199 200 204
2.01515 12.1753 3.68726 197 199 203
3.45451 12.17 4.23368 199 201 205
6.2216 12.2955 5.12817 189 191 195
34.1825 13.0552 1.96159 197 198 203
43.7239 13.3015 0.685504 205 204 208
-13.2163 12.5379 0.141993 173 172 177
-7.65332 12.5942 1.31277 171 170 175
1.75256 12.55 3.47649 197 199 203
21.733 12.9679 3.3581 192 192 197
25.7087 13.09 3.16792 198 198 203
27.8414 13.1695 2.89087 195 196 201
31.7053 13.3101 2.42191 196 197 202
43.3427 13.637 0.779898 200 199 202
44.5366 13.6512 0.991491 200 199 203
-43.2391 -12.297 0.481542 209 209 209
22.6957 -31.8191 -1.37359 207 207 212
-41.7529 12.1552 1.49648 198 197 203
0.207131 12.9363 2.67567 164 164 169
1.74527 12.9209 3.39493 197 199 203
29.5862 13.5875 2.76654 198 199 204
35.8701 13.8349 1.75304 202 203 206
40.0941 14.0243 0.837894 193 194 197
45.3394 14.1544 0.897613 197 196 198
-41.8669 12.4984 1.45177 199 198 203
-2.32222 13.3355 1.30204 192 193 197
-0.83335 13.321 1.9836 149 150 154
0.34103 29.7502 -2.88944 181 180 185
2.25679 13.2841 3.6287 129 131 135
10.4853 13.5114 5.18021 140 139 144
-29.2172 61.8025 3.4578 139 137 119
12.4358 13.5827 4.92425 188 187 192
21.7126 13.8922 3.1802 148 149 154
22.082 13.8439 3.23583 149 149 154
25.6655 13.9391 3.22396 147 148 153
34.6369 14.2731 1.98698 138 139 144
35.8457 14.3215 1.77781 137 137 141
47.1203 14.5704 0.685413 196 193 196
-0.318464 13.6756 2.31303 171 171 176
2.13039 13.6628 3.35849 171 174 177
29.5438 14.4345 2.81472 198 198 203
18.5607 -26.7727 -1.38409 206 210 214
31.6525 14.5157 2.47953 149 149 154
37.8284 14.7779 1.1671 193 194 197
43.2825 14.9311 0.992248 195 194 197
29.6519 19.5965 2.42918 208 207 212
-38.838 13.1324 0.885719 190 190 194
0.572329 14.03 2.69232 197 198 202
1.9868 14.0276 3.27391 183 185 189
5.37839 14.1762 4.24256 147 147 152
8.49592 14.2236 4.77621 145 145 150
29.5224 14.7944 2.81535 195 195 200
33.7142 14.9563 2.10149 125 126 131
41.7496 15.251 0.949388 195 196 199
6.13273 -62.897 0.558954 193 191 189
43.1078 15.2909 0.897734 199 198 201
22.348 32.5511 -0.399055 146 144 148
-9.05004 31.5551 -2.79089 186 184 189
25.7987 15.1665 2.96867 163 163 168
27.9329 15.2382 2.73466 166 167 172
29.8598 15.1725 2.69059 191 191 196
39.8319 15.5584 0.881882 192 192 196
41.7005 15.6042 0.902079 196 198 200
24.0018 15.4791 2.98226 192 193 198
30.0188 15.6715 2.42676 191 192 196
-9.13218 15.0968 0.669193 190 189 194
15.3848 15.5411 4.12402 181 180 185
23.967 15.8441 2.88518 188 189 194
24.9929 15.8733 2.84831 187 187 192
27.8663 15.9643 2.57549 187 187 192
29.9863 16.0335 2.35457 192 192 197
31.7173 16.0875 2.18649 190 191 196
47.122 16.6104 0.438806 211 209 212
-33.7723 14.6098 0.74961 200 199 204
-9.11739 15.4535 0.638418 134 133 138
0.926129 15.6077 2.5826 130 129 134
26.0657 16.2702 2.65598 186 187 192
48.1223 16.9644 0.672646 213 210 211
-33.4163 14.983 0.918273 200 199 204
-11.9822 15.7654 -0.0363822 147 146 151
-9.13235 15.8071 0.628664 141 140 145
2.40877 41.6968 0.245135 188 186 190
9.54173 16.128 3.87785 190 189 194
17.387 16.3417 3.75689 196 197 202
25.9059 16.7649 2.48885 185 186 191
-3.59911 17.0577 -0.241236 191 190 195
-34.5115 15.2367 1.61386 200 199 204
-2.23595 16.345 0.717049 163 162 167
9.91815 16.5048 3.78679 173 172 177
35.7994 17.4268 1.52254 182 181 185
37.8236 17.5026 1.07061 192 191 195
41.6737 17.6349 0.451097 208 207 211
43.2248 17.6653 0.622982 208 207 211
37.785 17.8531 1.05017 198 198 202
39.458 17.9129 0.744091 207 206 210
40.3203 18.0775 0.538562 206 206 209
41.291 18.0988 0.550898 206 205 209
0.268076 17.0552 2.00286 189 188 193
6.51713 17.3078 2.7283 180 179 184
31.7817 18.0204 1.73788 153 153 158
37.7644 18.3367 1.00528 206 206 210
39.7981 18.4083 0.629786 206 205 209
40.3472 32.2979 -0.872791 206 203 206
-41.159 16.1768 0.889652 203 201 206
24.0589 18.1365 2.57971 130 130 135
28.2954 18.2654 2.14752 197 196 201
30.0353 18.3152 2.02283 144 143 148
34.7603 18.5798 1.68287 166 166 170
39.7592 18.7516 0.670918 206 205 209
46.1326 18.9995 1.54495 211 208 212
-1.88729 17.7671 0.631026 197 196 201
-0.884182 17.7717 1.17135 199 198 203
13.3265 18.2861 3.66662 192 191 196
34.0055 18.9032 1.85983 200 199 204
46.2758 19.2689 1.47787 211 207 208
29.6481 19.2463 2.30825 207 206 211
31.7601 19.3107 2.0773 203 202 207
33.6355 19.3566 2.03809 203 202 207
41.0909 19.7127 0.552067 208 207 211
41.4832 19.7475 0.305198 205 205 209
48.219 19.7941 1.26678 213 211 211
-41.1573 17.1102 0.949359 202 201 205
20.4478 58.5253 -1.62403 178 176 176
7.71373 35.6457 -3.72504 134 131 135
15.8393 19.0662 3.6787 183 184 188
24.0024 19.4419 2.69683 188 188 193
28.8012 19.5688 2.54428 205 204 209
33.6244 19.7065 2.09186 206 205 210
35.3485 19.8823 1.9783 207 206 210
20.4697 40.7198 -3.03871 181 180 184
-39.4958 17.5131 1.30342 201 200 205
-38.88 17.5874 1.43737 205 204 209
-2.14511 18.8257 0.220781 135 134 139
13.8633 19.3858 3.33618 184 183 188
19.5205 19.5236 3.55694 188 189 193
33.619 20.1804 2.2464 208 207 212
47.944 20.6768 1.57402 211 209 211
6.28103 19.4823 1.47153 184 183 188
8.06104 19.5207 1.75634 128 127 132
10.862 19.703 2.16729 187 186 191
12.8067 19.7291 2.88928 155 154 159
14.2334 19.7516 3.33487 186 185 190
23.9747 20.1471 2.76268 193 193 198
27.5309 20.237 2.80005 151 150 155
39.2459 20.6892 1.71935 207 205 210
21.8592 33.7342 -0.858637 194 191 196
-42.4755 17.9994 1.35643 201 200 204
-41.1258 18.0348 1.14264 199 198 202
-38.8251 18.3386 1.48255 202 202 206
-38.4623 18.3474 1.44391 202 200 206
-1.6494 19.5363 0.350096 187 186 191
11.6094 20.0738 2.23699 120 119 124
12.6511 20.0912 2.61612 116 115 120
25.7269 20.5429 2.81103 201 201 206
29.411 20.7588 2.87777 136 135 140
34.9797 20.9127 2.38244 150 149 154
-41.806 18.3696 1.17209 200 199 202
10.0598 20.4039 1.63568 162 160 166
13.0012 20.4546 2.55744 173 172 177
22.845 20.8205 2.95257 116 116 121
25.7041 20.8935 2.84021 170 169 174
29.3998 21.1076 2.97825 140 139 144
32.8764 21.2051 2.61195 165 164 169
35.1224 21.2599 2.53919 162 161 166
-38.4284 18.8051 1.55187 198 197 202
-36.6543 18.8612 1.40548 198 197 202
-1.9025 20.2354 -0.0213487 200 199 204
0.866194 20.404 1.02399 187 186 191
19.8358 21.0867 3.34787 118 119 123
21.7976 21.1422 3.09311 148 148 153
31.1319 21.5076 2.84415 198 197 202
35.0817 21.732 2.63731 198 197 202
19.0144 57.3735 -2.59932 198 196 195
-41.0974 19.0691 1.21086 197 196 200
-38.446 19.1486 1.61583 198 197 202
-37.5454 19.1695 1.6777 198 197 202
-1.47485 20.7648 0.0962879 194 194 198
-0.533529 20.6051 0.580661 194 193 198
6.85475 20.9153 0.930581 187 186 191
19.6433 21.4412 3.14948 187 188 192
20.3905 21.4616 3.08598 180 181 186
33.0118 22.027 2.95866 197 196 201
36.4634 22.1182 2.66767 206 205 210
-42.7025 -9.60162 1.50485 207 206 207
38.489 22.1763 2.19699 205 204 208
47.5314 22.5169 1.96259 214 211 213
-39.4608 19.4607 1.61738 198 197 202
-0.198537 20.9604 0.603833 192 191 196
16.2799 21.7187 2.67218 187 188 192
24.1059 22.049 2.46163 190 189 194
-39.4494 19.8048 1.70044 198 197 202
-37.8227 19.8601 1.45253 199 198 203
-37.454 19.8692 1.57042 199 198 203
-37.1227 19.8763 1.60349 199 198 203
-36.8551 19.8765 1.85384 198 197 202
-1.66075 21.4024 -0.167225 187 186 191
-0.302067 21.4318 0.385657 188 187 192
10.6021 21.9451 1.25517 189 188 193
12.0106 21.8585 1.64021 189 188 193
13.9313 21.8969 2.12964 191 190 195
26.1475 22.5647 2.28747 191 191 195
31.7911 22.8168 2.81362 200 199 204
-34.0978 12.7954 0.722789 193 192 197
-2.64232 21.7286 -0.757848 184 183 188
15.0513 22.5185 2.00411 186 185 190
27.5236 22.9465 2.33889 191 190 195
-40.3774 20.3613 1.63743 195 194 199
-2.6577 22.0702 -0.820348 132 131 136
-1.28736 22.1026 -0.184205 145 144 149
0.0902065 22.2517 0.385751 112 111 116
31.8721 23.5338 1.94434 197 196 201
36.7336 23.7688 2.53782 198 197 202
-21.9284 51.1741 1.5083 183 178 184
34.4717 49.454 -2.37319 201 201 201
45.3043 24.0923 2.12766 205 202 205
-40.2127 20.7105 1.645 196 195 200
-33.8697 21.0075 2.58944 197 196 201
-1.30483 22.4445 -0.283256 134 133 138
-0.74372 22.4613 0.0444396 132 131 136
-0.281864 22.5868 0.156361 179 178 183
9.40842 22.9643 0.456562 179 178 183
-7.05583 19.8794 -0.582073 183 182 187
35.751 36.8189 -1.9272 179 176 179
14.4713 23.206 1.53701 137 136 141
15.3909 23.226 1.9075 187 186 191
16.0107 23.2379 2.15136 188 188 192
29.6004 23.8212 2.34465 191 190 195
30.8785 23.8315 2.18821 194 193 198
34.9419 24.0772 2.34431 198 195 201
35.4818 24.0853 2.50553 197 196 201
35.9682 24.1105 2.31574 202 201 205
36.6327 24.1046 2.63715 198 197 202
37.6905 24.1349 2.60822 198 197 202
39.9182 24.3119 2.42279 205 203 207
40.2438 24.3228 2.37133 201 200 204
43.0648 24.3838 2.31403 204 201 205
44.563 24.4174 2.22601 205 202 206
-39.7853 21.0689 1.79463 195 194 199
-39.2948 21.0871 2.03384 195 194 198
-34.4675 21.3368 2.04908 197 196 201
-33.8372 21.3568 2.59045 197 196 201
-10.1884 22.4604 -0.986896 124 123 128
-4.59193 22.7465 -1.78816 189 188 193
6.24959 23.111 -0.0695255 185 184 189
39.652 29.3166 0.227685 196 192 197
8.0257 23.2767 0.0327577 176 175 180
14.2083 23.5501 1.30954 119 118 123
14.8253 23.5613 1.60111 170 169 174
27.5062 24.1221 1.78602 190 189 194
30.8188 24.1891 2.08208 195 193 198
35.2333 24.4254 2.27175 197 196 201
-2.43547 23.1044 -1.03375 198 197 202
38.4661 24.9775 1.96175 202 200 204
47.3278 25.2946 2.18545 209 207 206
-39.0843 21.7804 1.65266 192 192 196
-38.8008 21.7906 1.84515 193 192 197
-2.44186 23.4448 -1.10563 196 195 200
-1.04402 23.4885 -0.366011 197 196 201
6.47854 23.925 -0.417111 182 181 186
14.3754 24.2489 0.986174 193 192 197
35.2128 25.2472 1.99226 199 197 202
38.397 25.3171 1.82684 201 199 203
27.8758 61.7555 0.447401 140 135 118
-44.3155 21.7824 0.907365 200 200 197
-39.3405 22.1146 1.40684 193 193 197
-34.8198 22.2608 2.30811 194 193 198
-32.9505 22.4255 2.85198 195 194 199
-9.90504 23.4709 -1.0307 190 189 194
-0.698496 23.951 -0.480575 184 183 188
14.3418 24.5907 0.791068 192 191 196
15.7532 24.6288 1.28956 189 188 193
33.2952 25.4215 1.87393 197 195 200
38.6819 25.7794 1.63696 200 197 201
-39.7371 22.3903 1.21782 199 198 203
13.1531 24.9024 0.145998 195 194 199
16.1043 25.1034 1.06723 183 182 187
26.4136 25.4776 1.0558 193 192 197
33.5989 26.0109 1.69899 198 196 201
38.6248 26.2451 1.45685 197 194 198
45.4062 26.5204 1.88195 202 199 202
-39.046 22.7047 1.24996 197 196 200
-34.8835 22.9526 2.44156 190 189 194
-20.1777 42.6014 0.924149 181 177 183
-34.4421 22.9627 2.42343 193 192 197
-1.79877 24.4894 -1.13 197 196 201
8.52508 25.0044 -0.748207 187 186 191
13.0206 25.2452 -0.0425268 174 173 178
14.523 25.2827 0.446188 188 187 192
16.4813 25.4586 1.11063 185 184 189
32.031 26.3179 1.3955 196 194 199
34.4341 26.3696 1.73621 196 196 200
38.3051 26.578 1.4153 194 190 195
46.1234 26.9041 1.68365 203 200 204
-35.0456 23.2956 1.74728 188 187 192
-33.7136 23.3345 2.89161 195 194 199
-1.82239 24.823 -1.29806 142 141 146
-46.3043 -53.1872 -2.21728 255 255 255
3.7042 25.0927 -1.07864 164 163 168
32.7664 37.4125 -2.33011 198 195 199
11.987 25.5543 -0.483095 184 183 188
13.3702 25.5946 -0.126992 125 124 129
24.974 26.2386 0.902623 161 160 165
33.2324 26.6833 1.4373 191 188 193
43.3538 27.1619 1.84976 198 196 198
46.9155 27.3548 1.60017 200 197 198
-35.0579 23.6557 1.47928 188 187 192
46.7154 27.6898 1.37322 200 197 199
-34.3762 23.6647 2.23285 188 187 192
-33.9159 23.6666 2.51205 193 192 197
-33.037 23.7011 2.73009 195 194 199
-2.89899 25.1296 -1.97001 147 146 151
7.13779 25.6396 -1.20762 129 128 133
21.1609 26.4915 1.04761 145 144 149
24.8204 26.7016 0.753384 119 118 123
32.2904 27.0017 1.18881 134 131 137
43.9578 27.6097 1.53314 203 200 201
-42.3542 23.4872 0.727404 199 197 200
-41.6642 23.5516 0.804169 196 196 198
-40.2716 23.5721 0.983722 204 203 208
-34.8291 23.8628 1.69837 193 192 197
-34.0577 24.0001 2.36658 192 191 196
-33.0072 24.0482 2.74956 193 192 197
-2.55211 25.4766 -1.89561 136 135 140
-1.5684 25.5089 -1.46526 167 166 171
28.7272 27.1302 0.704594 126 125 130
31.4748 27.3235 0.952565 150 148 153
42.0973 27.8936 1.6552 201 198 200
-40.2931 45.6883 -3.71934 193 189 185
-35.6565 24.1835 0.896328 190 189 194
-4.36397 38.2045 -1.29033 195 195 197
-33.6469 24.3652 2.75687 193 192 197
-33.0071 24.3916 2.74064 193 192 197
-14.9092 25.3401 1.01078 154 153 159
-32.6428 42.6099 2.93672 193 192 195
4.29995 26.1207 -1.42496 136 135 140
7.3471 26.433 -1.48227 192 191 196
25.1324 27.3876 0.637569 186 185 190
29.9202 27.624 0.619307 180 178 183
43.816 28.4147 1.24433 197 194 197
-33.6097 24.712 2.82614 192 191 196
-33.2577 24.7308 2.97008 194 193 198
-20.813 25.238 1.90096 138 137 142
9.04348 26.8138 -1.35539 193 192 197
-41.9753 -28.4583 -0.716728 202 203 207
30.3891 27.9693 0.639323 196 193 199
22.1604 34.3881 -0.97528 194 192 197
35.1579 28.207 1.08115 192 189 195
42.9685 28.7273 1.40101 201 198 199
47.2378 28.9417 1.02179 210 208 208
-1.34403 26.5199 -1.85235 191 190 195
7.6743 27.1073 -1.61991 191 190 195
9.41192 27.2745 -1.41061 192 191 196
16.6926 27.6559 0.0687423 194 193 198
18.3158 27.7823 0.624434 193 192 197
30.2053 28.3017 0.458549 192 190 195
32.0748 28.4681 0.587732 199 197 202
38.7626 28.844 0.374318 195 192 196
43.2444 29.1144 1.14187 200 197 198
45.1455 29.2285 0.712149 198 196 198
-7.7458 26.5628 -2.04291 170 169 174
-1.95499 26.826 -2.31835 188 187 192
7.53236 27.4391 -1.75491 190 189 194
16.4381 27.9352 -0.108929 190 189 194
20.0149 28.1638 0.73741 195 194 199
26.9716 28.5625 0.255382 194 192 197
30.4973 28.871 0.169358 193 191 196
35.2696 29.1159 0.740222 190 187 193
37.0379 29.1417 0.535992 192 189 193
39.0146 29.2985 0.0719815 195 192 196
47.1139 29.7293 0.870915 213 211 211
-0.746421 27.4212 -2.20397 179 178 183
12.7007 28.1585 -1.11454 195 195 199
15.2719 28.3958 -0.796175 185 184 188
18.475 28.4641 0.569285 190 190 194
24.8872 28.7331 0.456089 196 194 199
26.9207 29.0068 0.204955 192 190 196
28.617 29.0421 0.0530614 194 192 197
30.4343 29.199 0.0581067 196 194 200
18.4349 60.2686 -1.22972 147 146 135
35.5469 29.449 0.54004 191 187 193
38.8383 29.6309 0.0317874 195 192 196
44.7825 29.8815 0.475002 201 198 201
46.9116 30.0616 0.820823 214 212 212
47.4591 30.0723 0.846323 215 213 212
6.18286 28.062 -2.12015 186 185 190
9.59909 28.28 -1.63327 186 186 189
11.3243 28.3328 -1.38876 192 191 195
12.6752 28.4903 -1.15129 163 162 166
18.3155 28.788 0.34114 179 178 182
34.222 39.8363 -2.41216 145 142 145
35.3558 29.7779 0.318995 166 163 168
44.7314 30.3347 0.30739 210 207 209
32.0341 37.5465 -2.40011 193 190 194
45.6938 30.3568 0.391858 215 212 214
46.8884 30.3943 0.825002 215 212 213
-43.348 25.5423 0.187247 198 198 198
-6.73996 41.5823 -2.3049 194 192 193
9.95505 28.6237 -1.65 163 162 165
11.2924 28.6626 -1.44355 117 116 119
18.8088 29.1429 0.396838 191 190 194
19.1857 29.1554 0.465204 190 189 193
30.5897 29.8699 -0.190266 161 158 164
33.8112 30.0729 0.0945373 156 153 158
36.9858 30.2625 0.0321064 136 133 137
15.9448 59.6801 -2.17546 172 171 166
46.8747 30.967 0.878568 214 212 213
-32.6857 26.6756 2.19582 192 191 196
-1.33035 28.2805 -2.60054 141 140 145
-0.455661 28.4013 -2.21446 110 109 114
23.1353 29.9434 0.618132 132 128 134
27.2234 30.1359 -0.00032217 164 163 168
30.9099 30.2058 -0.315359 123 120 126
32.2918 30.3701 -0.133871 131 127 133
37.2772 30.5945 -0.111416 189 186 190
43.7973 31.0751 -0.0420421 212 209 212
45.615 31.1273 0.357346 213 211 212
31.2886 51.8763 -2.73126 193 193 193
-42.9302 26.175 -0.00981802 199 198 199
-0.633434 28.734 -2.70819 140 139 144
0.0709272 28.7549 -2.61818 131 130 135
20.4979 30.0904 0.435545 124 122 127
32.2196 30.6906 -0.298042 181 178 183
33.7256 30.7284 -0.0856722 175 172 177
40.6593 31.2136 -0.400702 200 197 200
43.2615 31.3922 -0.180128 211 209 211
46.8198 31.6322 0.906465 213 212 211
10.1422 29.6134 -2.02245 181 180 184
17.1396 30.1761 -0.893869 194 193 196
