ply
format ascii 1.0
comment Created by Open3D
element vertex 76
property double x
property double y
property double z
end_header
-51.6438 -42.8933 1.45087
-51.6438 -41.6433 1.94824
-50.3938 -41.6433 1.2825
-49.1438 -41.6433 1.19445
-47.8938 -41.6433 0.897831
-46.6438 -41.6433 0.954595
-45.3938 -41.6433 0.374713
-44.1438 -41.6433 -0.446203
-42.8938 -41.6433 -1.66404
-41.6438 -41.6433 -1.49986
-40.3938 -41.6433 -1.83663
-39.1438 -41.6433 -2.31338
-37.8938 -41.6433 -2.41123
-51.6438 -40.3933 1.58269
-50.3938 -40.3933 1.05586
-49.1438 -40.3933 1.06999
-47.8938 -40.3933 0.884137
-46.6438 -40.3933 0.381355
-45.3938 -40.3933 -0.221129
-44.1438 -40.3933 -0.747223
-42.8938 -40.3933 -1.89719
-41.6438 -40.3933 -1.89578
-40.3938 -40.3933 -2.24606
-39.1438 -40.3933 -2.32617
-51.6438 -39.1433 0.743372
-50.3938 -39.1433 0.402499
-49.1438 -39.1433 0.993952
-47.8938 -39.1433 1.07521
-46.6438 -39.1433 0.463769
-45.3938 -39.1433 -1.35471
-44.1438 -39.1433 -1.86098
-51.6438 -37.8933 1.08428
-50.3938 -37.8933 0.760569
-49.1438 -37.8933 0.311089
-47.8938 -37.8933 0.355115
-46.6438 -37.8933 -0.621136
-45.3938 -37.8933 -1.47586
-44.1438 -37.8933 -1.8875
-51.6438 -36.6433 1.01868
-50.3938 -36.6433 0.642109
-49.1438 -36.6433 0.138967
-47.8938 -36.6433 -0.337309
-46.6438 -36.6433 -1.13006
-45.3938 -36.6433 -2.13895
-44.1438 -36.6433 -2.07118
-51.6438 -35.3933 0.683378
-50.3938 -35.3933 0.455514
-49.1438 -35.3933 0.0960864
-47.8938 -35.3933 -0.69583
-46.6438 -35.3933 -1.74612
-45.3938 -35.3933 -2.11884
-44.1438 -35.3933 -1.96561
-51.6438 -34.1433 0.434954
-50.3938 -34.1433 -0.248488
-49.1438 -34.1433 -0.293742
-47.8938 -34.1433 -1.64662
-46.6438 -34.1433 -1.89274
-45.3938 -34.1433 -1.94638
-44.1438 -34.1433 -1.79602
-51.6438 -32.8933 -0.731477
-50.3938 -32.8933 -0.879289
-49.1438 -32.8933 -1.73869
-47.8938 -32.8933 -1.82353
-46.6438 -32.8933 -1.83441
-45.3938 -32.8933 -1.84611
-44.1438 -32.8933 -1.69067
-51.6438 -31.6433 -1.81285
-50.3938 -31.6433 -1.73098
-51.6438 9.60667 1.96476
-50.3938 9.60667 2.02133
-49.1438 9.60667 1.78861
-47.8938 9.60667 1.76703
-4.14375 28.3567 -1.412
-4.14375 29.6067 -1.13046
-1.64375 34.6067 -1.59226
-1.64375 35.8567 -1.09765
