ply
format ascii 1.0
comment Created by Open3D
element vertex 229
property double x
property double y
property double z
property uchar red
property uchar green
property uchar blue
end_header
-18.444 37.8828 -5.95419 174 171 176
-16.8873 37.2766 -5.95419 181 178 184
-41.3073 43.0481 -5.95419 154 152 142
-19.4553 42.0221 -5.95419 157 155 160
-42.0562 50.4121 -5.95419 151 149 130
-14.7052 48.3812 -5.95419 182 180 185
-44.3474 20.1684 -5.95419 202 202 199
-42.592 34.1035 -5.95419 194 194 192
13.5598 60.3023 -5.95419 150 147 126
-17.0586 37.2658 -5.95419 189 187 193
-26.927 55.2189 -5.95419 178 175 177
-39.3447 52.6676 -5.95419 196 196 191
-44.2173 34.9274 -5.85826 151 148 131
-43.9927 34.9261 -6.05013 161 159 145
-39.0629 53.7813 -5.95419 197 197 192
-38.8209 50.6789 -5.95419 196 195 192
-40.6963 45.348 -5.95419 184 182 175
-42.8526 28.0976 -5.95419 198 198 198
-40.6994 45.0588 -5.95419 187 185 177
32.5829 56.498 -5.95419 206 206 206
-44.0827 -26.9765 -5.95419 200 201 197
-38.6642 51.0088 -6.0589 199 196 194
-38.4883 50.8156 -5.84949 192 189 186
-45.6196 12.6709 -5.95419 153 149 137
-32.5647 42.224 -5.95419 195 193 196
46.549 19.0035 -5.95419 213 211 214
-44.1786 25.8251 -5.95419 195 196 188
-44.1793 25.5102 -5.95419 199 200 191
-42.0431 50.6969 -5.95419 150 148 129
-42.1193 45.8708 -5.95419 153 150 131
-39.2585 54.0802 -5.95419 195 194 190
-45.7349 -1.10962 -5.95419 145 142 132
-44.502 38.6989 -5.95419 171 169 154
-45.2711 34.0838 -5.95419 177 176 164
-17.4835 38.5793 -5.90611 143 139 145
-17.2583 38.5675 -6.00228 128 124 130
-20.1148 49.6413 -5.95419 184 180 186
-14.4302 48.1156 -5.95419 179 175 181
-44.2017 23.5992 -5.95419 199 199 195
-46.4355 15.2134 -5.95419 152 151 134
-47.0765 4.20998 -5.95419 166 164 147
-32.5169 41.9227 -5.95419 190 188 191
-46.5272 21.8378 -5.95419 179 178 166
-44.782 18.5215 -5.93856 189 188 182
-44.7674 18.8474 -5.96982 186 185 179
-44.5087 36.3528 -5.95419 174 172 158
-17.4214 38.2537 -5.95419 152 149 155
-45.8357 12.3512 -5.95419 154 151 137
-46.8322 2.5232 -5.95419 164 161 145
-44.3167 -26.941 -5.95419 175 174 170
-45.1948 20.1296 -5.95419 137 135 124
-44.1348 -26.6402 -5.95419 198 199 196
-43.8527 24.5949 -5.95419 201 200 201
-32.284 42.1799 -5.95419 194 192 195
-44.2477 34.6157 -5.95419 153 150 133
-45.012 18.8273 -5.95419 155 154 144
-44.2163 23.2744 -5.95419 200 199 195
-14.6028 48.3191 -5.95419 179 175 181
-17.5775 33.785 -5.95419 181 179 184
-31.7702 38.2236 -5.95419 191 189 192
-18.4478 38.2055 -5.95419 100 98 103
-34.5353 15.8154 -5.95419 200 199 204
-43.0908 28.3704 -5.95419 202 202 201
-30.3967 43.7213 -5.95419 190 188 191
-44.7613 38.9239 -5.95419 247 247 242
-43.7944 24.9015 -5.95419 201 201 200
-10.417 49.8795 -5.95419 174 171 176
-34.8323 15.3778 -5.95419 201 200 205
-14.7333 48.0307 -5.95419 178 175 181
29.4149 55.2417 -5.95419 212 212 212
-46.3783 15.5619 -5.96863 153 153 133
-46.2519 15.5092 -5.93976 149 146 127
-44.5505 20.4353 -5.95419 202 202 198
-45.5405 -1.20245 -5.95419 144 142 133
-45.5349 -0.859865 -5.95419 141 139 131
-46.3416 21.9114 -5.95419 157 155 137
-44.3326 20.4923 -5.95419 200 201 197
-46.8191 2.87437 -5.95419 165 163 146
-42.8627 28.4109 -5.95419 198 197 197
-30.2607 43.4085 -5.95419 188 186 189
-17.7694 48.4815 -5.95419 185 182 188
-42.4407 33.7856 -5.95984 200 200 199
-42.441 34.0931 -5.94854 200 200 199
4.17494 53.5994 -5.95419 180 177 183
-40.5347 48.7683 -5.95419 159 156 142
-45.6714 12.3608 -5.95419 151 147 135
-40.2856 48.5254 -5.95419 194 191 183
-38.5574 55.001 -5.95419 197 195 191
-45.78 12.672 -5.95419 155 152 136
-45.6646 13.0017 -5.95419 150 147 134
-19.2803 42.0168 -5.95419 156 152 158
-42.6228 33.7837 -5.95419 195 195 193
-34.7982 15.6207 -5.95419 201 200 205
-46.2591 15.1797 -5.95419 149 146 129
-34.5427 15.5506 -5.95419 201 200 205
-28.7874 58.155 -5.95419 187 186 187
-44.5006 38.9951 -5.95419 181 180 169
-44.4002 25.792 -5.95419 156 155 147
-44.9948 18.4857 -5.95419 156 155 145
-45.2002 19.8061 -5.95419 145 142 131
-45.4311 20.0848 -5.95419 145 144 130
-45.1261 20.7672 -5.95419 151 149 137
-44.8654 20.7912 -5.95419 167 166 158
-45.0706 21.0799 -5.95419 151 149 137
-25.9948 55.1479 -5.95419 176 174 176
-28.5737 58.7755 -5.95419 188 188 188
-46.492 22.1802 -5.95419 181 180 168
-45.3893 22.2255 -5.95419 158 154 140
-45.1634 22.2781 -5.95419 150 147 133
-45.3657 22.565 -5.95419 157 154 140
-44.3781 23.3448 -5.95419 187 185 180
-16.3394 48.2449 -5.95419 181 176 182
-44.539 23.5872 -5.95419 177 175 170
-43.8797 24.262 -5.95241 201 200 201
-43.6729 24.2605 -5.95598 197 196 198
-43.6583 24.5779 -5.95419 197 197 198
-39.2601 47.1603 -5.95419 204 203 201
-44.3736 26.1222 -5.95419 157 155 147
-44.4742 27.071 -5.95419 146 145 134
-44.7449 27.2605 -5.95419 153 149 137
-44.5759 27.3831 -5.95419 148 145 133
-39.4529 52.3811 -5.95419 196 195 191
-42.0375 48.2944 -5.95419 149 147 125
-39.6948 55.0943 -5.95419 168 165 156
-44.4733 30.0782 -5.95419 150 148 131
-17.5582 33.4515 -5.95419 184 182 188
-17.3077 33.4354 -5.9315 181 179 184
-17.3266 33.7598 -5.97689 178 176 181
-44.782 30.2569 -5.95419 144 141 121
-44.5042 30.3563 -5.95419 147 146 130
-44.7704 30.5658 -5.95419 144 140 120
-39.274 53.7924 -5.95419 193 192 189
-38.631 51.8273 -6.00445 198 196 193
-38.3682 51.8889 -5.90393 197 195 192
-17.0285 36.9397 -5.95419 182 180 186
-13.4208 37.4355 -5.91045 183 180 186
-13.1678 37.4583 -5.99794 178 174 180
-13.4178 37.7575 -5.95419 182 179 185
-13.1745 37.7795 -5.95419 179 175 181
-13.4181 38.0775 -5.92932 171 168 174
-13.1904 38.1024 -5.97907 179 175 181
-45.5339 34.0161 -5.95419 222 223 214
-18.7187 38.0735 -5.95419 126 123 129
-17.2471 38.2499 -5.95419 119 115 121
-12.2396 38.6447 -5.94934 185 182 188
-12.2461 38.9656 -5.95905 184 181 187
-11.9714 38.6626 -5.95419 182 179 184
-45.5038 34.3315 -5.95419 233 234 226
-44.0155 34.6196 -5.95419 163 161 146
-11.9748 38.9827 -5.95419 182 178 183
-32.0331 37.7904 -5.95419 191 189 193
-31.7708 37.897 -5.95419 191 189 192
-32.0309 38.1107 -5.95419 193 191 195
-44.6973 36.3904 -5.95419 180 179 165
-32.027 38.4381 -5.95419 195 193 197
-31.7562 38.5484 -5.95419 192 190 193
29.7176 55.267 -5.95419 180 180 179
-44.4662 36.6184 -5.95419 146 144 127
-39.2649 46.9591 -5.95419 198 196 195
-19.4198 41.7009 -5.95419 159 156 161
-19.417 42.3458 -5.95419 185 182 187
-30.504 43.389 -5.95419 191 189 193
-41.757 41.7853 -5.95651 160 158 148
-41.8224 42.0629 -5.95188 150 145 135
-41.5032 42.093 -5.95419 179 177 169
29.3132 55.5809 -5.95888 201 201 199
29.5587 55.4128 -5.94951 193 193 191
-16.4283 47.9728 -5.95419 183 179 185
-41.6062 43.223 -5.95419 148 146 131
-41.4083 43.3333 -5.95419 148 147 132
-17.788 48.1685 -5.95419 185 183 188
-17.6052 48.1546 -5.95419 181 176 182
-16.5896 48.2803 -5.95419 188 184 190
-17.6346 48.4837 -5.95419 183 178 184
-17.7196 48.8158 -6.01376 187 184 189
-17.5674 48.8266 -5.89462 182 177 183
-10.4252 49.5559 -5.95419 174 171 176
-10.1624 49.6405 -5.95419 178 174 178
4.16315 53.2598 -5.95419 176 172 178
4.36461 53.2925 -5.95419 179 177 182
-19.9355 49.3547 -5.95419 183 178 184
-19.8771 49.6547 -5.95419 182 177 183
-40.9073 45.0861 -5.95419 159 159 150
-41.0172 45.3383 -5.95419 154 151 141
-42.0894 45.6044 -5.95419 159 157 139
-41.8067 45.6907 -5.94741 154 150 133
-41.825 45.9738 -5.96097 155 153 138
-47.0714 4.07737 -5.95419 156 153 138
-42.0309 48.0159 -5.95419 151 148 127
-42.3009 48.2627 -5.95419 161 160 143
-40.2818 48.8077 -5.95419 192 190 181
-40.3809 50.2954 -5.95419 161 157 147
-26.8974 54.8758 -5.95419 177 175 177
-25.9489 54.8634 -5.8784 184 182 185
-25.959 54.8604 -6.02999 182 179 183
-40.687 50.439 -5.95419 151 148 133
-40.4175 50.5503 -5.95419 161 159 148
-27.0506 55.1452 -5.95419 185 182 186
-25.8412 55.1606 -5.95419 185 183 187
-41.762 50.4874 -5.95419 165 161 145
-38.8342 50.9633 -5.95419 201 200 197
-38.6359 51.5519 -5.95419 198 197 194
-38.338 51.6053 -5.95419 196 195 192
-39.5751 52.6492 -5.95419 194 193 186
-39.5551 52.9291 -5.95419 193 191 184
-39.3485 52.94 -5.95419 198 197 192
-39.0451 54.063 -5.95419 198 198 193
-28.7281 58.4514 -5.95419 188 187 187
-39.8477 54.5135 -5.95419 157 153 144
-38.7416 54.7323 -5.89437 195 194 190
-38.4631 54.7425 -6.01401 199 198 197
-39.8186 54.7939 -5.95419 159 156 146
-39.6636 54.7866 -5.95419 175 173 166
-38.7957 55.0405 -5.95419 199 199 196
-39.9545 55.0103 -5.95419 152 149 138
-46.7171 2.83383 -5.95419 156 154 138
-46.7121 3.17197 -5.95419 157 154 139
-46.8216 4.30769 -5.95419 157 155 139
46.2286 18.9724 -5.95419 211 208 212
46.3511 19.2598 -5.95419 211 207 208
-45.2164 34.3481 -5.95419 162 162 148
-40.578 48.4754 -5.95419 162 158 146
-41.5082 41.7966 -5.95419 190 187 180
-38.9328 47.1029 -5.95419 193 190 188
13.7677 60.0911 -5.95419 154 151 135
-28.5774 58.4438 -5.95419 183 181 180
32.6189 56.8269 -5.95419 205 205 204
13.8443 60.3943 -5.95419 154 152 133
32.7964 56.7997 -5.95419 205 205 205
